5.365539	1.233711	0.145991	0.227642	2780.000000
5.334503	1.184463	0.141606	0.078261	435.000000
5.202199	1.101791	0.172522	0.023256	-135.000000
5.166702	1.053089	0.170425	0.061404	-55.000000
5.188363	1.024816	0.148950	0.057377	-175.000000
5.143199	0.973991	0.150595	0.008264	-25.000000
5.099582	0.923359	0.151527	0.094118	-200.000000
5.075462	0.880053	0.145996	0.011905	95.000000
5.059913	0.840883	0.137949	0.020000	-110.000000
5.064224	0.806517	0.122265	-0.071429	-175.000000
5.073649	0.773893	0.104772	-0.035398	160.000000
5.055675	0.733423	0.097312	-0.094737	-15.000000
5.033717	0.692381	0.091488	-0.006711	-215.000000
4.982426	0.644117	0.096871	-0.040936	175.000000
4.958003	0.604261	0.092654	0.032787	-150.000000
4.913387	0.559132	0.096030	-0.032000	40.000000
4.837487	0.506998	0.111604	0.000000	180.000000
4.770415	0.458280	0.124294	0.132911	3015.000000
4.703065	0.409422	0.137016	0.157143	1335.000000
4.496783	0.332662	0.205392	0.560976	1910.000000
4.408678	0.284134	0.228201	0.526882	2135.000000
4.389743	0.249931	0.223466	0.534091	2185.000000
4.308450	0.204872	0.244353	0.947368	-510.000000
4.285415	0.170915	0.241651	0.644444	470.000000
4.262107	0.138227	0.239556	0.425287	2375.000000
4.258731	0.108366	0.228993	0.362500	2575.000000
4.403011	0.103313	0.157252	0.341463	370.000000
4.399213	0.072576	0.146487	0.212121	125.000000
4.356817	0.035969	0.151913	0.003953	35.000000
4.327051	0.001963	0.152307	0.172414	-135.000000
4.256854	-0.038082	0.169708	0.505050	2050.000000
3.991300	-0.102194	0.271600	0.484848	1920.000000
4.063153	-0.119675	0.229606	0.566038	1710.000000
4.030834	-0.151348	0.232111	0.509804	2000.000000
4.042050	-0.177519	0.215795	0.301075	1700.000000
3.890939	-0.220886	0.270860	0.352941	2040.000000
3.836257	-0.252727	0.284028	0.298611	4085.000000
3.919813	-0.271498	0.235754	0.438095	3710.000000
3.906688	-0.298731	0.230692	0.315789	1110.000000
3.940652	-0.322826	0.204152	0.347826	620.000000
4.032437	-0.343723	0.150917	0.412698	550.000000
4.035018	-0.371160	0.138126	0.368421	975.000000
3.993794	-0.401274	0.145379	-0.014925	25.000000
3.767663	-0.439255	0.238862	0.349315	1125.000000
3.753437	-0.466412	0.234245	0.412162	3095.000000
3.751811	-0.492464	0.223992	0.298507	1180.000000
3.710332	-0.518671	0.232939	0.447368	2330.000000
3.585637	-0.546713	0.281420	0.377778	-65.000000
3.580024	-0.571489	0.273564	0.101322	685.000000
3.518423	-0.596664	0.292665	0.438596	1595.000000
3.543211	-0.620573	0.270414	0.505882	2285.000000
3.564101	-0.645460	0.249629	0.577465	1435.000000
3.647569	-0.671522	0.197985	0.415584	1660.000000
3.610658	-0.695410	0.205579	0.391667	2545.000000
3.625453	-0.721220	0.187292	0.543860	1145.000000
3.640132	-0.746784	0.169152	0.335570	1090.000000
3.645256	-0.773889	0.154931	0.215909	425.000000
3.673727	-0.800693	0.129531	0.242991	790.000000
3.692888	-0.827846	0.108451	0.372973	2415.000000
3.665772	-0.851759	0.111192	0.436975	2960.000000
3.652412	-0.877590	0.106396	0.082569	-165.000000
3.651633	-0.903051	0.095669	-0.008197	-35.000000
3.620444	-0.926485	0.100512	0.000000	-0.000000
3.592933	-0.949146	0.103917	0.000000	-0.000000
3.572101	-0.973068	0.103493	0.000000	-0.000000
3.547916	-0.995520	0.105339	0.000000	-120.000000
3.521432	-1.018948	0.107830	0.009709	-25.000000
3.493560	-1.040384	0.111868	0.026087	-75.000000
3.451221	-1.060934	0.123258	-0.020000	-155.000000
3.428393	-1.082569	0.124732	0.018349	70.000000
3.373855	-1.100223	0.143263	0.011111	275.000000
3.276397	-1.109289	0.186353	0.139535	1020.000000
3.170394	-1.115955	0.234602	0.000000	-0.000000
3.114897	-1.129493	0.255392	0.425532	1120.000000
3.108989	-1.152391	0.248018	0.377778	-425.000000
3.101629	-1.173853	0.241989	0.846154	1130.000000
3.114328	-1.200172	0.224065	0.101695	330.000000
3.094722	-1.219163	0.225023	0.436090	1850.000000
3.134326	-1.251321	0.191461	0.315789	1650.000000
3.059995	-1.258484	0.224097	0.407767	1950.000000
3.043050	-1.278753	0.223118	0.236111	1375.000000
3.017965	-1.295955	0.227455	0.545455	2460.000000
7.427239	2.910667	0.147236	0.285714	1390.000000
7.373592	2.828485	0.138403	0.063830	-270.000000
7.283876	2.730585	0.138992	0.166667	55.000000
7.198683	2.636382	0.139058	0.096154	-425.000000
7.121538	2.547384	0.137640	0.105263	-340.000000
7.011676	2.445270	0.145240	0.000000	-120.000000
6.955834	2.369924	0.139899	0.000000	-0.000000
6.910485	2.298814	0.131666	0.029412	-75.000000
6.932525	2.257003	0.105696	0.206897	1980.000000
6.884386	2.186015	0.098676	0.097087	-130.000000
6.799717	2.101120	0.101989	0.070175	-140.000000
6.539894	1.947799	0.154346	0.154762	-85.000000
6.518467	1.891847	0.141577	0.047170	-125.000000
6.458746	1.821657	0.139812	0.163636	-555.000000
6.373119	1.742769	0.145826	-0.094828	-2485.000000
6.334010	1.682458	0.138971	0.446809	930.000000
6.263336	1.612583	0.142013	0.131579	-250.000000
6.185143	1.540050	0.147271	0.063830	-270.000000
6.124537	1.474933	0.147780	0.202899	-590.000000
6.070777	1.413133	0.146630	0.066038	185.000000
6.009218	1.349649	0.148167	-0.019608	195.000000
5.947231	1.287023	0.150228	0.023810	-555.000000
5.913998	1.234571	0.143787	0.288889	70.000000
5.651638	1.111312	0.208934	0.176471	-870.000000
5.633649	1.067861	0.199404	0.052632	-390.000000
5.553266	1.004610	0.209166	0.046154	90.000000
5.645104	0.991644	0.163901	0.101695	-420.000000
5.630156	0.948171	0.153003	0.311111	-350.000000
5.561389	0.891119	0.160108	-0.018519	-35.000000
5.523695	0.842482	0.157029	0.164384	-120.000000
5.539042	0.808359	0.136590	0.096774	-270.000000
5.550498	0.773082	0.117386	0.094891	-85.000000
5.521063	0.727577	0.111892	0.023256	-135.000000
5.491357	0.682472	0.106677	-0.134752	115.000000
5.470460	0.640846	0.098983	0.030769	-280.000000
5.408734	0.589336	0.105147	-0.054688	115.000000
5.342936	0.537853	0.113067	0.055556	-255.000000
5.267610	0.485296	0.124721	0.000000	120.000000
5.045754	0.402784	0.188306	0.316456	2195.000000
4.941967	0.347778	0.211390	0.482456	4025.000000
4.889655	0.304968	0.216866	0.315385	1495.000000
4.822343	0.259291	0.227747	0.360000	195.000000
4.732465	0.211353	0.247558	0.500000	1055.000000
4.751731	0.182566	0.227377	-0.031250	-10.000000
4.915271	0.178078	0.153881	0.431579	4015.000000
4.843282	0.133396	0.167158	0.885714	1270.000000
4.830318	0.098623	0.158589	-0.120482	-290.000000
4.815310	0.063728	0.150869	0.000000	-0.000000
4.770378	0.024748	0.154561	0.226519	1855.000000
4.569640	-0.033606	0.218614	0.000000	120.000000
4.527987	-0.070404	0.221733	0.039474	345.000000
4.467673	-0.108021	0.232702	0.016129	95.000000
4.520112	-0.131790	0.199890	-0.026316	-35.000000
4.427950	-0.171795	0.223822	-0.046512	-130.000000
4.528005	-0.192291	0.171444	0.081081	1365.000000
4.505744	-0.224953	0.167708	0.294118	870.000000
4.481397	-0.257496	0.164907	0.035088	130.000000
4.466135	-0.289059	0.158527	0.276190	2755.000000
4.447005	-0.319939	0.154099	0.205742	1685.000000
4.409210	-0.352463	0.157184	0.000000	60.000000
4.133363	-0.397121	0.259695	0.000000	-0.000000
4.132272	-0.425295	0.248451	0.008333	95.000000
4.121726	-0.453863	0.241163	0.532374	2230.000000
4.120236	-0.482037	0.230069	0.196262	1650.000000
4.066957	-0.512215	0.240845	0.412371	3260.000000
4.015536	-0.540955	0.251414	0.283333	4070.000000
3.989751	-0.568056	0.251379	0.284553	3985.000000
3.960104	-0.595549	0.252883	0.386555	3770.000000
3.977863	-0.622841	0.233625	0.397849	2735.000000
3.995425	-0.650436	0.214330	0.259434	3725.000000
3.892303	-0.675537	0.249049	0.391608	3040.000000
3.971539	-0.704412	0.202110	0.444444	2000.000000
3.911973	-0.729690	0.217604	0.254545	610.000000
3.905171	-0.755943	0.209505	0.048780	130.000000
3.916272	-0.783666	0.192932	0.162162	720.000000
3.939969	-0.811607	0.170724	-0.009709	-35.000000
4.037175	-0.846502	0.113269	0.159091	-355.000000
4.020434	-0.873064	0.109372	0.196970	-265.000000
4.003343	-0.900148	0.105376	-0.007519	-275.000000
3.984496	-0.926224	0.102587	0.000000	-0.000000
3.939948	-0.951223	0.111505	0.010870	-145.000000
3.908287	-0.975506	0.115077	-0.014925	-250.000000
3.881698	-1.000654	0.116025	-0.028302	-225.000000
3.840896	-1.023222	0.124315	-0.008333	25.000000
3.823045	-1.048713	0.121257	0.009524	-205.000000
3.773194	-1.069315	0.134336	0.010000	-145.000000
3.724699	-1.090824	0.146397	0.206061	2330.000000
3.610918	-1.101139	0.191895	0.468085	-80.000000
3.582036	-1.123810	0.194835	0.352941	660.000000
3.512836	-1.138532	0.218868	0.514852	1520.000000
3.332210	-1.135317	0.299427	0.348837	2670.000000
3.335630	-1.159809	0.287409	0.376623	2455.000000
3.343885	-1.185945	0.272534	0.301205	2375.000000
3.315364	-1.204823	0.276909	0.321839	2300.000000
3.314304	-1.229969	0.266522	0.655738	2360.000000
3.304780	-1.252258	0.261081	0.500000	2450.000000
3.291306	-1.274564	0.257333	0.462500	2195.000000
3.279782	-1.296335	0.252978	0.405797	1640.000000
3.260946	-1.317028	0.252256	0.423913	2865.000000
3.221572	-1.332126	0.262955	0.191489	855.000000
3.188621	-1.349529	0.269813	0.069767	285.000000
3.288171	-1.398391	0.205057	0.481013	2110.000000
3.357372	-1.442459	0.155626	0.500000	1245.000000
3.336123	-1.462425	0.156239	0.429688	3245.000000
7.820003	2.479028	0.151006	0.070000	-295.000000
7.768760	2.402353	0.140182	0.024096	-100.000000
7.687825	2.314700	0.136582	0.069444	-190.000000
7.697352	2.263213	0.112013	-0.011905	-2015.000000
7.644363	2.188295	0.102550	0.510417	1775.000000
7.532258	2.092743	0.108012	0.066667	-175.000000
7.307497	1.958713	0.142233	0.059524	-65.000000
7.206562	1.871482	0.146655	-0.048246	-1525.000000
7.157969	1.805110	0.138892	0.000000	60.000000
7.031868	1.712021	0.150836	0.268116	4235.000000
6.962087	1.639852	0.149056	0.000000	-360.000000
6.742300	1.520097	0.187081	0.159091	-290.000000
6.641658	1.441526	0.194848	-0.009346	-155.000000
6.488667	1.348184	0.217257	0.088235	-285.000000
6.674139	1.358713	0.148422	0.004000	-85.000000
6.635162	1.301204	0.140431	0.088496	-130.000000
6.565748	1.237342	0.141837	0.606299	2515.000000
6.488774	1.170500	0.145024	0.069307	-115.000000
6.394666	1.099075	0.153078	0.050000	-270.000000
6.326045	1.036752	0.154793	-0.024096	-130.000000
6.251168	0.975294	0.159305	0.102190	-50.000000
6.183553	0.915340	0.161573	0.216216	-500.000000
6.137850	0.862123	0.157923	-0.044776	75.000000
6.131086	0.818685	0.142902	0.080460	305.000000
6.122114	0.774740	0.128523	0.023438	165.000000
6.094131	0.727043	0.120127	-0.044586	115.000000
6.076950	0.682833	0.108869	-0.048780	20.000000
6.035203	0.633036	0.105034	0.018605	200.000000
5.964983	0.577909	0.110244	-0.007692	145.000000
5.896323	0.524095	0.115378	-0.026667	580.000000
5.772928	0.459913	0.137868	0.410714	685.000000
5.551566	0.380571	0.192848	0.125000	1930.000000
5.297809	0.299507	0.259894	0.278351	1545.000000
5.259678	0.257313	0.257705	0.302521	-60.000000
5.129183	0.201849	0.286540	0.228070	515.000000
5.144972	0.169737	0.267173	0.375000	1110.000000
5.190522	0.143005	0.238236	0.192308	935.000000
5.260306	0.118080	0.200477	0.352941	2490.000000
5.233998	0.079096	0.194890	0.225806	1400.000000
5.231906	0.043858	0.181284	0.403509	85.000000
5.244536	0.009869	0.162355	0.268293	505.000000
4.883266	-0.066584	0.273727	0.301075	2780.000000
4.874784	-0.101028	0.262939	0.470588	1440.000000
4.845487	-0.136787	0.259845	0.546875	1945.000000
4.692130	-0.182661	0.301595	0.409091	450.000000
4.724353	-0.211462	0.277046	0.491803	1470.000000
4.716922	-0.243603	0.266771	0.459459	3280.000000
4.769280	-0.271461	0.234642	0.232558	230.000000
4.712653	-0.307388	0.242239	0.375000	735.000000
4.685876	-0.340527	0.239197	0.381295	1015.000000
4.679495	-0.371754	0.228865	0.298851	310.000000
4.764534	-0.399296	0.183934	0.301587	245.000000
4.791232	-0.430437	0.160553	0.467213	1575.000000
4.550673	-0.470406	0.239165	0.785714	1555.000000
4.483749	-0.502813	0.252254	0.342246	2180.000000
4.480140	-0.533230	0.241152	0.204082	110.000000
4.468728	-0.564487	0.232767	0.530120	1960.000000
4.339995	-0.595411	0.270897	0.453125	2095.000000
4.334098	-0.624029	0.261412	0.482353	2395.000000
4.342753	-0.653772	0.245722	0.546875	2065.000000
4.453211	-0.685217	0.189077	0.521739	2400.000000
4.350121	-0.713177	0.218278	0.339286	725.000000
4.452559	-0.745613	0.164382	0.296296	500.000000
4.408455	-0.774408	0.169921	0.224490	805.000000
4.487964	-0.807918	0.124636	0.178571	1010.000000
4.480472	-0.837778	0.115250	0.044444	-290.000000
4.467069	-0.868038	0.108018	-0.040404	160.000000
4.442612	-0.896812	0.105780	0.150000	-300.000000
4.410190	-0.926790	0.106169	0.015504	130.000000
4.367105	-0.953472	0.112148	0.045113	-210.000000
4.338421	-0.981417	0.111895	0.008772	-745.000000
4.297002	-1.007194	0.117585	0.066667	-110.000000
4.249600	-1.033501	0.125399	0.010417	-445.000000
4.218986	-1.059301	0.126800	0.006494	-85.000000
4.171605	-1.083803	0.135345	0.028571	-110.000000
4.124469	-1.106756	0.144449	0.000000	720.000000
4.031762	-1.123987	0.173914	0.047619	-115.000000
3.872542	-1.130001	0.234326	0.156863	340.000000
3.803515	-1.148384	0.253950	0.227273	-10.000000
3.761977	-1.168703	0.261921	0.531646	2370.000000
3.759494	-1.196190	0.251463	0.382353	1750.000000
3.730327	-1.217991	0.253923	0.432432	320.000000
3.740049	-1.247478	0.237806	0.540000	2130.000000
3.719558	-1.270530	0.236313	0.338710	2370.000000
3.696996	-1.293453	0.235671	0.330435	3610.000000
3.679870	-1.316673	0.232770	0.395349	1555.000000
3.589473	-1.326074	0.264541	0.333333	1910.000000
3.567005	-1.347214	0.264608	0.385417	2435.000000
3.723891	-1.409019	0.176888	0.513514	1930.000000
3.720108	-1.435511	0.167346	0.345238	1495.000000
3.593068	-1.433481	0.218334	0.492063	3010.000000
3.519200	-1.442093	0.243906	0.375000	1005.000000
3.521831	-1.470219	0.231117	0.513761	2320.000000
3.627278	-1.524292	0.166926	0.548387	1840.000000
3.554559	-1.533334	0.191836	0.442308	1430.000000
7.951436	1.803302	0.161379	0.180952	725.000000
7.817486	1.708254	0.169415	0.377358	-160.000000
7.767199	1.639375	0.158716	0.000000	-60.000000
7.658183	1.554691	0.162237	0.012658	-445.000000
7.565461	1.476202	0.162580	0.009709	-805.000000
7.449359	1.394071	0.169678	0.093023	-0.000000
7.391187	1.327944	0.162937	0.100917	-155.000000
7.304469	1.253663	0.162908	0.343511	2355.000000
7.266055	1.194341	0.152007	0.211268	870.000000
7.155302	1.119276	0.160162	0.069307	305.000000
6.887546	1.006639	0.208295	0.102564	-140.000000
6.949610	0.974758	0.173229	0.064103	-485.000000
6.909404	0.918650	0.164317	0.064935	-125.000000
6.832780	0.855404	0.165318	-0.023529	-190.000000
6.786067	0.799589	0.158837	0.042254	-195.000000
6.801351	0.758316	0.136450	-0.051471	-125.000000
6.759582	0.704616	0.129108	-0.028736	-115.000000
6.740191	0.655449	0.115726	0.048913	15.000000
6.686324	0.600593	0.112194	-0.046053	-365.000000
6.613143	0.541609	0.113774	0.276316	-585.000000
6.461681	0.471765	0.138538	0.319372	2255.000000
5.874715	0.333254	0.288776	0.581818	1220.000000
5.885775	0.295902	0.269548	0.467742	2395.000000
5.911683	0.261799	0.246405	0.250000	3460.000000
5.779639	0.203329	0.269014	0.264151	670.000000
5.747976	0.161699	0.263106	0.160000	820.000000
5.765537	0.125645	0.242140	0.333333	1950.000000
5.742850	0.084537	0.233295	-0.042553	-130.000000
5.744652	0.046596	0.217126	0.231884	1660.000000
5.740451	0.008820	0.203133	0.348148	5485.000000
5.787344	-0.024317	0.173041	0.031873	520.000000
5.438560	-0.097559	0.266078	0.080745	-205.000000
5.241724	-0.151321	0.313513	0.357724	2560.000000
5.217605	-0.187103	0.307383	0.367647	2195.000000
5.225535	-0.221315	0.290614	0.526316	1830.000000
5.282537	-0.251946	0.257993	0.105023	445.000000
5.329786	-0.284304	0.228125	0.450549	3175.000000
5.333079	-0.319632	0.212535	0.435897	-365.000000
5.330468	-0.355328	0.198894	0.662338	885.000000
5.333323	-0.389906	0.183775	-0.031250	25.000000
5.203365	-0.430004	0.213255	0.207143	1135.000000
5.273829	-0.462957	0.174970	0.634146	1100.000000
5.014991	-0.503748	0.249620	0.325581	2300.000000
4.981067	-0.538008	0.247619	0.493333	2315.000000
4.935704	-0.571649	0.249922	0.250000	4000.000000
4.876787	-0.605854	0.256767	0.271186	140.000000
4.718009	-0.637710	0.299797	0.564103	1960.000000
4.679886	-0.668076	0.300883	0.467532	2760.000000
4.872882	-0.703629	0.218385	0.083333	835.000000
4.798408	-0.734489	0.232095	0.190476	960.000000
4.855248	-0.769098	0.197999	0.444444	1600.000000
4.889340	-0.802681	0.172333	0.257143	3840.000000
4.919274	-0.837437	0.147672	0.000000	-0.000000
4.960074	-0.873258	0.118742	0.121212	220.000000
4.933454	-0.904629	0.115394	0.215385	-290.000000
4.885972	-0.935425	0.119655	0.040816	30.000000
4.860879	-0.966354	0.115958	0.059603	-225.000000
4.822146	-0.998266	0.116691	0.007042	-85.000000
4.776271	-1.026865	0.121280	0.009259	-85.000000
4.724647	-1.054899	0.128140	0.068627	-355.000000
4.650848	-1.079462	0.144235	0.052083	-485.000000
4.613635	-1.108629	0.145551	-0.075472	140.000000
4.569347	-1.134910	0.150548	0.026316	-40.000000
4.478677	-1.155655	0.174137	0.376344	2570.000000
4.311130	-1.164095	0.229842	0.390244	520.000000
4.270319	-1.188995	0.234174	0.115385	330.000000
4.237065	-1.213507	0.236013	0.505263	2100.000000
4.254403	-1.247236	0.216267	0.397727	1705.000000
4.169765	-1.263067	0.239752	0.582524	1500.000000
4.041011	-1.272054	0.281557	0.574074	2045.000000
4.025733	-1.297704	0.276611	0.243590	1985.000000
3.997182	-1.322143	0.276828	0.242424	1040.000000
3.981589	-1.347553	0.272097	0.532258	2235.000000
3.969268	-1.374002	0.265783	0.320388	2835.000000
3.865116	-1.380949	0.299764	0.724638	1510.000000
3.838047	-1.404264	0.299926	0.647619	700.000000
3.814958	-1.426767	0.299029	0.553846	1140.000000
3.857433	-1.465494	0.268440	0.346154	30.000000
4.055190	-1.540302	0.168517	0.631579	1800.000000
3.989818	-1.554874	0.185741	0.288889	1090.000000
3.811332	-1.539152	0.255119	0.161290	770.000000
3.707389	-1.541548	0.290872	0.445783	575.000000
3.701297	-1.567522	0.282602	0.276596	335.000000
8.628565	0.635581	0.137342	-0.046980	-65.000000
8.517197	0.563570	0.137705	-0.014706	290.000000
8.333531	0.484794	0.154930	0.035398	20.000000
7.593033	0.336307	0.294501	0.894118	1460.000000
7.421906	0.267649	0.312580	0.487603	2245.000000
7.376543	0.213920	0.302747	0.237113	2330.000000
7.334636	0.162750	0.293053	-0.102564	340.000000
7.236195	0.105053	0.296045	0.000000	-0.000000
7.571912	0.089222	0.198568	0.000000	-0.000000
7.546495	0.037811	0.184418	0.000000	-60.000000
7.113359	-0.045803	0.267583	0.405405	1590.000000
6.864275	-0.110647	0.308604	0.389381	4120.000000
6.890222	-0.154783	0.283609	0.428571	3000.000000
6.741413	-0.208958	0.301889	0.382353	2350.000000
6.716427	-0.253023	0.290775	0.380000	6135.000000
6.669823	-0.299301	0.284657	0.256410	4340.000000
6.694572	-0.341702	0.260820	0.183673	255.000000
6.773241	-0.382830	0.222947	0.371951	2135.000000
6.834045	-0.425745	0.189212	0.618182	710.000000
6.743672	-0.472275	0.194963	0.040323	-185.000000
6.481048	-0.519388	0.247101	0.673913	2950.000000
6.185566	-0.564022	0.309159	0.360825	2305.000000
6.164272	-0.604713	0.298646	0.460432	1760.000000
6.163982	-0.645311	0.282530	0.548387	2380.000000
6.244331	-0.686993	0.244188	0.041152	350.000000
6.201013	-0.727426	0.239833	0.380165	2150.000000
6.141898	-0.767961	0.239736	0.500000	2405.000000
6.355813	-0.815975	0.162845	0.340000	2150.000000
6.371297	-0.857624	0.142182	0.688172	2660.000000
6.340224	-0.898832	0.134328	0.327731	4005.000000
6.289751	-0.938309	0.132432	0.030928	585.000000
6.200779	-0.975059	0.142064	0.068376	-80.000000
6.151985	-1.012541	0.140556	0.024540	260.000000
6.070453	-1.047712	0.148855	-0.068966	130.000000
5.956335	-1.079193	0.167443	0.022472	10.000000
5.884295	-1.112135	0.174091	0.099237	-85.000000
5.745369	-1.138887	0.201307	0.015873	310.000000
5.581941	-1.160562	0.237163	0.726190	2435.000000
5.304310	-1.170200	0.308686	0.142857	460.000000
5.295015	-1.204536	0.297903	0.918033	1960.000000
5.262604	-1.236629	0.294273	0.231343	3545.000000
5.260479	-1.271543	0.281369	0.375000	2040.000000
5.244399	-1.306617	0.272208	0.512195	3030.000000
5.232406	-1.340052	0.262604	0.500000	1400.000000
5.212335	-1.373447	0.255222	0.371429	1185.000000
5.320066	-1.425565	0.205972	0.479339	2330.000000
5.104516	-1.427294	0.263900	0.212500	55.000000
5.280703	-1.492336	0.191144	0.169811	135.000000
5.253789	-1.525614	0.185771	-0.016129	-95.000000
5.180662	-1.548206	0.197080	-0.012195	-35.000000
5.118155	-1.573788	0.204378	0.217391	1755.000000
5.065419	-1.598892	0.209229	0.043478	-330.000000
4.878829	-1.597061	0.260780	-0.034483	-35.000000
4.885400	-1.632742	0.245511	0.401515	2155.000000
4.788228	-1.646181	0.266955	0.437500	1885.000000
4.739313	-1.668714	0.271832	0.642857	2400.000000
4.658538	-1.684991	0.287777	0.537736	1515.000000
4.637136	-1.712757	0.283214	0.318681	2635.000000
4.596744	-1.737226	0.285096	0.311594	1325.000000
4.480304	-1.739992	0.315938	0.345455	1810.000000
4.418380	-1.756601	0.326694	0.243243	75.000000
4.412982	-1.787290	0.316748	0.476923	3070.000000
4.535193	-1.855551	0.257846	0.325581	1270.000000
4.684064	-1.932199	0.188547	0.412698	550.000000
4.664070	-1.962463	0.182822	0.470588	1820.000000
4.587152	-1.973558	0.199862	0.240000	-90.000000
7.736921	-0.205944	0.335910	0.390805	2150.000000
7.721584	-0.256685	0.318908	0.559322	255.000000
7.745001	-0.304243	0.294290	0.258621	-75.000000
7.728955	-0.355169	0.277479	0.793478	1835.000000
8.003483	-0.397671	0.197035	-0.045161	-1505.000000
7.436212	-0.461382	0.302404	0.210526	3440.000000
7.292405	-0.511639	0.315486	0.623377	2520.000000
7.360991	-0.558558	0.280949	0.274725	1055.000000
7.154427	-0.605404	0.309967	0.374150	5105.000000
6.992531	-0.650846	0.329288	0.365079	3375.000000
7.009507	-0.696878	0.307145	0.373626	-550.000000
7.319935	-0.748480	0.215140	0.365854	3420.000000
6.990008	-0.788065	0.275683	0.261780	1330.000000
7.402261	-0.847170	0.157318	-0.021277	25.000000
7.353356	-0.895143	0.149803	-0.020000	-95.000000
7.283026	-0.940563	0.148291	-0.022388	15.000000
7.199099	-0.982809	0.151196	0.015267	250.000000
7.120617	-1.025972	0.152539	0.045455	-115.000000
7.001373	-1.065071	0.164917	-0.028571	340.000000
6.887819	-1.103492	0.176297	0.111111	-350.000000
6.716483	-1.134552	0.203912	0.010753	10.000000
6.471863	-1.158203	0.251380	0.111765	1085.000000
6.287180	-1.183887	0.284236	0.000000	-660.000000
6.112424	-1.207317	0.315700	0.413793	7620.000000
6.106524	-1.247898	0.301568	0.571429	3500.000000
6.023858	-1.278602	0.309010	0.594203	2630.000000
5.984608	-1.316398	0.303744	0.381944	4925.000000
6.027919	-1.361604	0.276567	0.220472	2900.000000
5.935112	-1.389923	0.287385	0.415493	3985.000000
6.191233	-1.465700	0.199360	0.455882	1625.000000
6.131822	-1.500326	0.200127	0.432836	1195.000000
5.907564	-1.506567	0.249905	0.311558	2710.000000
5.857930	-1.539200	0.249229	0.609375	2085.000000
5.802824	-1.569174	0.250867	0.024590	345.000000
5.633855	-1.579807	0.286249	0.092593	835.000000
5.454270	-1.584955	0.326189	0.424242	1640.000000
5.419407	-1.617502	0.322258	0.315789	1350.000000
5.415094	-1.653509	0.309965	0.260000	970.000000
5.406154	-1.690737	0.298327	0.386792	655.000000
5.391878	-1.725113	0.289032	0.636364	-90.000000
5.307779	-1.745727	0.301146	0.385542	1120.000000
5.222384	-1.763416	0.314680	0.267606	2590.000000
5.168464	-1.788025	0.318337	0.513158	1725.000000
5.185233	-1.828434	0.299705	0.366197	2110.000000
5.454647	-1.933823	0.198183	0.477612	2380.000000
5.392605	-1.956588	0.204532	0.550000	2525.000000
5.353945	-1.986416	0.202856	0.513514	2290.000000
5.076890	-1.949501	0.281418	0.383562	1760.000000
5.000258	-1.965715	0.293660	0.121951	-5.000000
4.995446	-2.000410	0.282369	0.066667	70.000000
4.967862	-2.030258	0.278215	0.000000	-0.000000
4.855220	-2.032716	0.303995	0.471910	1710.000000
4.936408	-2.095069	0.262590	0.545455	690.000000
8.593209	-0.829210	0.220947	0.206897	3870.000000
8.718663	-0.889061	0.173514	0.304348	2660.000000
8.628209	-0.942219	0.170151	0.526316	1590.000000
8.490607	-0.992132	0.177167	0.068966	-150.000000
8.383868	-1.043319	0.177834	0.000000	-120.000000
8.206852	-1.087667	0.194707	-0.019231	-430.000000
8.016258	-1.127569	0.215958	-0.060606	-90.000000
7.730035	-1.159470	0.258714	0.042553	-100.000000
7.521829	-1.193838	0.285594	0.415663	1815.000000
7.350689	-1.228714	0.305225	0.397260	-245.000000
7.234110	-1.265272	0.313779	0.451613	1940.000000
7.117296	-1.301573	0.322540	0.066225	1670.000000
7.025649	-1.338602	0.326233	0.486239	1435.000000
7.005639	-1.381912	0.313816	0.236559	880.000000
7.112741	-1.441383	0.270893	0.537931	2370.000000
7.254203	-1.505569	0.219636	0.452381	3255.000000
7.189812	-1.548153	0.216233	0.150000	1140.000000
7.074067	-1.579195	0.227105	0.531250	1130.000000
7.044506	-1.622652	0.216765	0.686047	1405.000000
6.636923	-1.606743	0.301575	0.207921	1695.000000
6.494145	-1.630058	0.320696	0.564815	1535.000000
6.495530	-1.673428	0.304567	0.231405	1460.000000
6.448538	-1.709665	0.300480	0.316456	2195.000000
6.352126	-1.735368	0.309896	0.291667	370.000000
6.361991	-1.780975	0.291455	0.458824	3045.000000
6.128659	-1.778395	0.337875	0.151515	770.000000
6.086787	-1.813507	0.333412	0.394366	1280.000000
6.403047	-1.920934	0.233090	0.280000	1030.000000
6.405450	-1.967407	0.216009	0.340278	3095.000000
6.317693	-1.991712	0.224551	0.404762	475.000000
6.031785	-1.971470	0.287829	0.660000	1455.000000
6.064638	-2.020942	0.263877	0.575342	1890.000000
5.832580	-2.007250	0.314362	0.517986	1260.000000
5.792206	-2.037697	0.311622	0.233333	910.000000
5.777117	-2.076399	0.301041	-0.025641	25.000000
5.714105	-2.100206	0.305191	0.564516	2065.000000
5.541028	-2.094699	0.341368	0.409091	2535.000000
5.539363	-2.133543	0.328237	0.274194	2210.000000
5.620118	-2.197435	0.290115	0.537313	1740.000000
5.836867	-2.302022	0.210977	0.440000	2055.000000
5.472637	-2.235488	0.306401	0.238095	585.000000
5.458926	-2.270878	0.297040	0.514706	865.000000
5.860905	-2.441175	0.158579	0.405660	4205.000000
5.820081	-2.470845	0.156681	0.338710	1875.000000
5.767800	-2.497425	0.158175	0.453333	1310.000000
5.728600	-2.526819	0.156142	0.212500	835.000000
8.971759	-1.535803	0.220259	0.323944	1585.000000
8.674904	-1.561476	0.256552	0.672131	1135.000000
8.516729	-1.599272	0.267015	0.478723	1155.000000
8.206845	-1.615557	0.308956	0.295455	190.000000
8.077922	-1.652996	0.315193	0.127660	660.000000
8.071479	-1.704649	0.297316	0.149171	345.000000
8.029000	-1.754736	0.285683	0.735294	1330.000000
7.715989	-1.759838	0.332517	0.340136	1630.000000
7.646855	-1.800382	0.328647	0.559633	1475.000000
7.600996	-1.842945	0.320503	0.285714	-640.000000
7.939653	-1.954031	0.227826	0.506849	2495.000000
7.719629	-1.966909	0.257665	0.447853	2675.000000
7.737669	-2.022968	0.234932	0.235294	780.000000
7.395219	-2.008295	0.293891	0.447761	-210.000000
7.192908	-2.018564	0.322096	0.421053	1300.000000
7.211066	-2.070474	0.301032	0.666667	2250.000000
7.054535	-2.088031	0.319609	0.172840	1750.000000
6.874171	-2.095897	0.345411	0.325301	1050.000000
6.864450	-2.142647	0.330759	0.306667	1045.000000
6.813340	-2.177562	0.326837	0.312500	1345.000000
6.644158	-2.185387	0.351078	0.450450	1990.000000
7.312448	-2.397518	0.171919	0.338983	1700.000000
6.386950	-2.212078	0.383049	0.303797	1320.000000
7.195191	-2.468958	0.166405	0.373832	4040.000000
7.083125	-2.491573	0.176766	0.260417	2555.000000
7.024565	-2.524675	0.175064	0.554054	895.000000
6.925985	-2.547830	0.183218	0.383333	1345.000000
6.837449	-2.570892	0.189857	0.511905	1385.000000
6.716911	-2.584577	0.204862	0.489130	1215.000000
6.600684	-2.597028	0.219650	0.617977	2525.000000
6.496882	-2.613954	0.231001	0.261905	590.000000
6.408729	-2.632602	0.239303	0.070423	-185.000000
6.218780	-2.618595	0.275017	-0.011494	25.000000
6.224711	-2.665910	0.258661	0.028846	-315.000000
8.841763	-2.568069	0.209677	0.305699	2005.000000
8.672831	-2.588048	0.223483	0.405660	1745.000000
8.505079	-2.609464	0.236762	0.576271	1730.000000
8.334528	-2.625379	0.252324	0.051546	-65.000000
8.148293	-2.637592	0.271139	0.147727	455.000000
7.995373	-2.653709	0.284659	0.032787	-170.000000
7.751489	-2.644573	0.317821	-0.019608	-35.000000
7.586007	-2.652811	0.335664	0.458333	2395.000000
7.519951	-2.689371	0.331993	0.000000	-0.000000
7.336182	-2.688598	0.355222	0.404762	2270.000000
7.206668	-2.703264	0.366750	-0.058824	50.000000
7.224063	-2.758844	0.346749	0.397959	2205.000000
6.960330	-2.729240	0.389541	0.340000	475.000000
6.951237	-2.775843	0.375914	0.475610	1725.000000
6.944755	-2.825561	0.361046	0.470000	1465.000000
6.836753	-2.839573	0.370478	0.324675	2195.000000
6.728148	-2.854158	0.379884	0.651515	1805.000000
4.195676	1.726074	0.106595	0.080460	-55.000000
4.174404	1.680648	0.105740	0.000000	-480.000000
4.062720	1.582912	0.146020	0.080000	-150.000000
4.034287	1.534384	0.148606	0.000000	-0.000000
4.050937	1.511242	0.130343	0.089552	-210.000000
4.056106	1.481630	0.117338	0.080460	-175.000000
4.041183	1.442499	0.114095	0.070588	-210.000000
4.016465	1.397552	0.115232	0.010000	-85.000000
4.006084	1.360821	0.109750	0.000000	180.000000
3.998702	1.325824	0.102810	0.137931	80.000000
3.958272	1.274441	0.111810	0.237288	-640.000000
3.915719	1.223085	0.122112	0.457627	-150.000000
3.885919	1.179186	0.126605	0.055172	-380.000000
3.877383	1.145504	0.120651	0.053571	-330.000000
3.767817	1.064041	0.164230	0.079545	-55.000000
3.838192	1.067799	0.119445	0.000000	-0.000000
3.810477	1.027021	0.123392	0.000000	-840.000000
3.799282	0.993374	0.118963	0.040541	-195.000000
3.781140	0.957010	0.118055	-0.013699	25.000000
3.759475	0.919392	0.118995	-0.015873	-35.000000
3.732456	0.880213	0.122822	0.014493	155.000000
3.740343	0.855688	0.108828	0.033708	45.000000
3.737823	0.827862	0.100437	-0.063492	-140.000000
3.748674	0.804649	0.084844	0.116883	-165.000000
3.742557	0.774643	0.077935	0.006024	-25.000000
3.721132	0.739198	0.079160	0.000000	240.000000
3.689352	0.700248	0.085889	-0.007299	-155.000000
3.685918	0.672178	0.077738	0.015504	-110.000000
3.675550	0.641743	0.073268	0.000000	60.000000
3.646520	0.604854	0.078808	-0.011905	-70.000000
3.605367	0.564552	0.091053	0.041379	-90.000000
3.592713	0.534267	0.088030	-0.034783	-20.000000
3.554420	0.496679	0.099293	0.148936	1150.000000
3.482217	0.448089	0.129016	0.413043	425.000000
3.276189	0.358635	0.232607	0.365385	965.000000
3.276120	0.335466	0.223683	0.555556	575.000000
3.280931	0.313620	0.211916	0.285714	360.000000
3.299150	0.295818	0.192700	0.132450	1060.000000
3.317155	0.278217	0.173628	0.403509	1010.000000
3.272417	0.242472	0.189610	0.258621	465.000000
3.254546	0.214657	0.190557	0.588235	1680.000000
3.190801	0.175148	0.217755	-0.027778	-35.000000
3.214944	0.159473	0.195121	-0.029412	-35.000000
3.315258	0.161556	0.128184	0.000000	-0.000000
3.315376	0.138437	0.118677	0.024390	35.000000
3.289950	0.109224	0.123949	0.041667	-110.000000
3.269410	0.082270	0.126759	0.000000	60.000000
3.265697	0.058596	0.119505	0.000000	-0.000000
3.246555	0.032812	0.121755	-0.013158	-35.000000
3.227286	0.006331	0.123788	0.000000	60.000000
3.180763	-0.026497	0.141648	0.431138	2460.000000
3.078219	-0.067320	0.194094	0.396552	2715.000000
3.048414	-0.093569	0.203241	0.504505	1840.000000
3.011715	-0.120674	0.216668	0.545455	1560.000000
3.018683	-0.141924	0.202797	0.492063	2345.000000
3.018913	-0.162447	0.193816	0.430233	3395.000000
2.993547	-0.187675	0.200163	0.393617	4390.000000
2.969872	-0.211359	0.206015	0.422819	1845.000000
2.907199	-0.240581	0.235974	0.433333	2635.000000
2.858062	-0.266497	0.258139	0.568965	1650.000000
2.933290	-0.277868	0.201730	0.448980	1350.000000
2.914210	-0.299868	0.205013	0.373239	895.000000
2.909968	-0.321136	0.198407	0.467532	2100.000000
2.899038	-0.342012	0.196532	0.425287	2435.000000
2.840839	-0.368048	0.224585	0.000000	240.000000
2.792848	-0.391399	0.246853	0.448276	130.000000
2.789823	-0.411631	0.239702	0.440298	1525.000000
2.791860	-0.430618	0.229645	0.496241	1710.000000
2.778621	-0.450912	0.229369	0.222222	750.000000
2.873769	-0.464931	0.157771	0.000000	60.000000
2.748507	-0.491354	0.231282	0.457746	4255.000000
2.725090	-0.511131	0.238122	0.357724	2860.000000
2.719713	-0.530607	0.232673	0.340580	3205.000000
2.721012	-0.549238	0.223036	0.514286	1980.000000
2.707016	-0.569181	0.223185	0.250000	215.000000
2.693008	-0.588528	0.223586	0.415584	1720.000000
2.678898	-0.607710	0.224091	0.382022	4120.000000
2.644962	-0.626657	0.238286	0.607143	2090.000000
2.647262	-0.645048	0.227842	0.571429	2580.000000
2.652593	-0.664236	0.214929	0.453125	1615.000000
2.634819	-0.682703	0.218123	0.375000	2280.000000
2.646417	-0.702158	0.200705	0.442177	2995.000000
2.628509	-0.720108	0.204160	0.461538	2250.000000
2.617002	-0.738501	0.203005	0.317073	1965.000000
2.605306	-0.756937	0.201883	0.464000	2450.000000
2.596847	-0.775310	0.198569	0.339806	1585.000000
2.701433	-0.802444	0.113432	0.476190	2250.000000
2.708598	-0.823015	0.098240	0.397260	1915.000000
2.713912	-0.843616	0.084225	0.339286	545.000000
2.707839	-0.863229	0.078483	0.161905	1315.000000
2.685573	-0.881069	0.084640	0.017857	70.000000
2.672855	-0.899839	0.083783	0.000000	-0.000000
2.660051	-0.918317	0.083058	0.000000	120.000000
2.661436	-0.938743	0.071625	0.000000	-0.000000
2.640642	-0.955475	0.077172	0.000000	120.000000
2.611736	-0.971344	0.088691	0.000000	-0.000000
2.604825	-0.990400	0.083472	-0.009615	-95.000000
2.579025	-1.006124	0.092863	0.000000	-120.000000
2.570573	-1.024099	0.089175	0.000000	-0.000000
2.557121	-1.041675	0.089062	-0.011494	-35.000000
2.520207	-1.054649	0.107309	0.000000	-0.000000
2.486495	-1.067816	0.123277	-0.034091	-45.000000
2.445089	-1.078768	0.145572	0.000000	60.000000
4.648490	1.918501	0.111319	0.061224	-30.000000
4.621710	1.865177	0.109529	0.105882	-225.000000
4.570962	1.801161	0.118440	0.033708	-135.000000
4.544895	1.749925	0.116803	0.031579	105.000000
4.531432	1.706911	0.110332	0.036585	-75.000000
4.409879	1.607278	0.149411	0.034091	-255.000000
4.455473	1.596282	0.118302	0.090909	-185.000000
4.444050	1.556761	0.111628	0.086957	-150.000000
4.374231	1.487173	0.129739	0.178571	-75.000000
4.350651	1.441936	0.128336	0.048544	-185.000000
4.336809	1.401682	0.122702	0.053191	-5.000000
4.302533	1.352186	0.126167	-0.096774	-1920.000000
4.306563	1.321329	0.112921	0.036765	-305.000000
4.241081	1.259344	0.130764	-0.062500	-115.000000
4.212459	1.214527	0.132287	0.217822	950.000000
4.175230	1.165417	0.137433	0.136691	65.000000
4.181503	1.137068	0.123507	0.116438	-305.000000
3.963615	1.013006	0.211685	0.019608	-170.000000
4.091395	1.037668	0.142666	0.045455	-150.000000
4.098603	1.010307	0.128340	0.272727	-495.000000
4.076686	0.971222	0.127524	-0.016393	-35.000000
4.039086	0.926464	0.134154	0.038462	-135.000000
4.013208	0.886696	0.135412	0.040816	-410.000000
4.022754	0.861986	0.120424	0.000000	-60.000000
4.027177	0.834295	0.107458	0.006024	-145.000000
4.017629	0.801622	0.101140	-0.011111	145.000000
4.016468	0.772184	0.090851	0.144737	-515.000000
4.006459	0.739864	0.084852	0.069231	-105.000000
3.984202	0.703524	0.084834	0.017241	105.000000
3.958289	0.666119	0.086616	-0.037500	30.000000
3.944221	0.633180	0.082776	-0.012739	-70.000000
3.917808	0.596661	0.085110	0.098361	240.000000
3.905006	0.564651	0.080734	0.007937	-265.000000
3.855653	0.522545	0.095019	-0.088889	140.000000
3.802724	0.479219	0.111032	0.084112	-105.000000
3.744306	0.435247	0.130120	-0.035714	-20.000000
3.535419	0.349123	0.226122	0.031496	700.000000
3.453979	0.301662	0.258051	0.349206	1970.000000
3.438026	0.273302	0.256780	0.285714	170.000000
3.459877	0.255596	0.236139	0.293478	2145.000000
3.471250	0.234506	0.220659	0.414013	2215.000000
3.465125	0.208723	0.214139	0.485294	615.000000
3.434637	0.177343	0.220553	0.400000	940.000000
3.433342	0.153700	0.211795	0.315789	2550.000000
3.457891	0.135469	0.189074	0.000000	-60.000000
3.535892	0.128773	0.137573	0.180000	-105.000000
3.539330	0.104872	0.125652	0.015152	-25.000000
3.523526	0.077797	0.124397	0.008130	35.000000
3.490278	0.046675	0.132383	-0.013158	145.000000
3.474164	0.020636	0.131671	0.426035	2340.000000
3.357570	-0.024883	0.185829	0.430657	2725.000000
3.252955	-0.067942	0.233484	0.395062	2500.000000
3.250282	-0.090157	0.225843	0.177885	995.000000
3.247405	-0.112560	0.218182	0.784314	320.000000
3.180511	-0.144760	0.246580	0.423077	1130.000000
3.177225	-0.168688	0.238451	0.333333	1545.000000
3.158432	-0.192759	0.239997	0.000000	-60.000000
3.175598	-0.212692	0.220628	0.000000	-0.000000
3.128944	-0.239992	0.238239	0.436620	2350.000000
3.135499	-0.260792	0.225096	0.661290	2155.000000
3.159202	-0.279266	0.202157	0.286713	4375.000000
3.163635	-0.301191	0.189783	0.000000	-0.000000
3.243680	-0.314741	0.133421	0.000000	-0.000000
3.242537	-0.338013	0.123887	0.076923	-135.000000
3.214004	-0.362202	0.131204	0.294737	500.000000
3.191999	-0.386833	0.134140	0.051724	225.000000
3.031478	-0.419100	0.221033	0.330882	1935.000000
3.026489	-0.441082	0.214337	0.352941	2910.000000
2.956689	-0.465233	0.247550	0.438776	3665.000000
2.943067	-0.486332	0.246618	0.593750	2470.000000
2.961795	-0.505739	0.226027	0.547945	3140.000000
2.973323	-0.526531	0.209286	0.500000	2055.000000
2.964483	-0.547136	0.205481	0.383929	3245.000000
2.935035	-0.568386	0.214326	0.379747	2250.000000
2.917521	-0.588642	0.216083	0.531646	2430.000000
2.914892	-0.609623	0.208041	0.447619	4585.000000
2.861570	-0.629713	0.232382	0.237864	1715.000000
2.821716	-0.649435	0.248357	0.139535	1860.000000
2.859308	-0.670313	0.214886	0.525000	3450.000000
2.871509	-0.690441	0.197727	0.349206	1430.000000
2.853225	-0.710338	0.199921	0.415929	-335.000000
2.814762	-0.728924	0.215403	0.103448	105.000000
2.826395	-0.749838	0.198154	0.292683	120.000000
2.809600	-0.768665	0.199772	0.010638	35.000000
2.814258	-0.789293	0.186993	-0.010417	145.000000
2.898367	-0.816154	0.121027	0.000000	-0.000000
2.933992	-0.840219	0.086988	-0.012195	25.000000
2.916305	-0.860193	0.088473	0.000000	-0.000000
2.893672	-0.879293	0.093485	0.032609	225.000000
2.877462	-0.899006	0.094090	-0.021739	-10.000000
2.871099	-0.919502	0.088093	-0.008850	25.000000
2.867774	-0.940561	0.079843	-0.008696	-35.000000
2.844768	-0.958969	0.085283	0.008772	-25.000000
2.821689	-0.977011	0.090880	-0.007874	145.000000
2.787170	-0.993253	0.104556	0.000000	-0.000000
2.790118	-1.014198	0.092266	0.000000	60.000000
2.760377	-1.030626	0.102775	-0.033333	15.000000
2.737051	-1.047699	0.108862	-0.009009	-35.000000
2.713725	-1.064485	0.115081	-0.031250	-130.000000
2.692146	-1.080715	0.120423	0.022727	70.000000
2.651162	-1.093420	0.139692	-0.013699	25.000000
2.626110	-1.108993	0.147469	-0.055556	15.000000
2.609067	-1.125887	0.149561	0.000000	-60.000000
5.358988	2.283832	0.071571	0.287129	1675.000000
5.338793	2.228662	0.063684	0.142857	-130.000000
5.299173	2.165622	0.063784	0.000000	-180.000000
5.204232	2.071830	0.083743	0.175000	-235.000000
5.028951	1.939561	0.134786	0.035088	-470.000000
5.023234	1.896530	0.122885	0.089552	-150.000000
4.991658	1.841295	0.121010	-0.118182	-2075.000000
4.927485	1.770395	0.131694	0.010101	-85.000000
4.932349	1.734783	0.116392	0.042553	-280.000000
4.899272	1.681803	0.116000	0.049587	930.000000
4.866067	1.628486	0.115537	0.032000	-400.000000
4.818797	1.569252	0.120763	0.060000	30.000000
4.753946	1.502808	0.133170	0.122222	145.000000
4.707465	1.445873	0.138685	0.047170	-365.000000
4.717172	1.414913	0.122048	0.085366	-175.000000
4.666270	1.358227	0.130016	0.000000	60.000000
4.642720	1.313362	0.126902	0.028302	-135.000000
4.605179	1.262239	0.129296	0.000000	-60.000000
4.572320	1.214602	0.130316	0.305389	4965.000000
4.509505	1.156214	0.144183	0.048780	-90.000000
4.477652	1.110448	0.145234	0.055556	-295.000000
4.421147	1.055605	0.156765	0.146341	-450.000000
4.418126	1.022329	0.146078	0.154412	-465.000000
4.407873	0.986482	0.138455	0.092308	-90.000000
4.374770	0.942404	0.140663	-0.027778	-430.000000
4.341197	0.899544	0.143528	-0.030303	-70.000000
4.340645	0.868219	0.132004	0.012658	-85.000000
4.355544	0.842382	0.113718	0.035714	-195.000000
4.344067	0.807398	0.106924	0.089286	350.000000
4.334022	0.773375	0.099611	-0.031008	-140.000000
4.341283	0.744999	0.084569	0.060811	255.000000
4.320282	0.707586	0.082106	0.096552	-110.000000
4.288566	0.667198	0.084598	-0.054348	250.000000
4.249496	0.625122	0.090551	0.030075	-160.000000
4.227777	0.588812	0.088827	0.000000	60.000000
4.198671	0.551491	0.090858	-0.252874	-590.000000
4.143039	0.506416	0.105006	0.048980	540.000000
4.021964	0.444246	0.149813	0.304965	3485.000000
3.934077	0.392748	0.179818	0.464286	1330.000000
3.708436	0.306768	0.275031	0.703704	2590.000000
3.718656	0.283707	0.260006	0.282051	265.000000
3.723344	0.259827	0.247766	0.345029	1765.000000
3.720864	0.233545	0.238668	0.493827	2000.000000
3.737567	0.211773	0.220299	0.432099	445.000000
3.680030	0.173153	0.237801	0.155556	185.000000
3.708711	0.154709	0.213818	0.000000	-60.000000
3.777860	0.143707	0.169561	0.081081	-315.000000
3.751491	0.112410	0.171962	0.027027	35.000000
3.756750	0.087660	0.158815	0.023810	10.000000
3.774138	0.065784	0.139791	-0.025862	75.000000
3.752561	0.035969	0.139955	-0.008475	-155.000000
3.570264	-0.020208	0.221883	0.416667	2665.000000
3.506049	-0.055347	0.244374	0.484536	2005.000000
3.496330	-0.082447	0.238734	0.458904	1805.000000
3.497068	-0.105640	0.228625	0.306878	1790.000000
3.488784	-0.130152	0.223116	0.435115	1995.000000
3.464536	-0.156757	0.225948	0.440367	1740.000000
3.469871	-0.181530	0.212386	0.051064	180.000000
3.343274	-0.220262	0.269223	0.391892	2335.000000
3.295648	-0.249184	0.284471	0.455882	1865.000000
3.304290	-0.270199	0.270514	0.411765	1880.000000
3.323203	-0.290876	0.250697	0.687500	1035.000000
3.445554	-0.301531	0.175267	0.317460	1280.000000
3.449908	-0.325411	0.162438	0.303030	560.000000
3.470024	-0.346937	0.141481	0.020408	35.000000
3.374229	-0.378363	0.183351	0.290323	1845.000000
3.268148	-0.407932	0.231985	0.242857	415.000000
3.257978	-0.431574	0.227536	0.504505	1960.000000
3.239152	-0.454428	0.228451	0.426667	2840.000000
3.230445	-0.477724	0.223242	0.400000	2720.000000
3.211366	-0.500183	0.224409	0.354839	3965.000000
3.167692	-0.523664	0.239333	0.325301	2085.000000
3.111943	-0.546266	0.261649	0.323232	2140.000000
3.151344	-0.567863	0.229155	0.431034	3010.000000
3.114509	-0.589496	0.240874	0.483333	1490.000000
3.048061	-0.611147	0.269702	0.513514	2470.000000
3.064699	-0.632027	0.250669	0.492754	2510.000000
3.027441	-0.653273	0.262681	0.482143	1365.000000
3.069414	-0.675484	0.228260	0.492063	1145.000000
3.145463	-0.699430	0.173248	0.516484	2245.000000
3.089011	-0.719511	0.196860	0.388489	2730.000000
3.108038	-0.741718	0.175658	0.518868	2765.000000
3.131876	-0.765077	0.151133	0.372881	2440.000000
3.150295	-0.788549	0.129640	0.358621	2660.000000
3.163398	-0.812010	0.111227	0.047619	-410.000000
3.167888	-0.834528	0.098190	0.029412	-685.000000
3.165292	-0.857164	0.089198	0.000000	-180.000000
3.137085	-0.877518	0.096051	0.010526	95.000000
3.112243	-0.897846	0.100960	0.000000	-0.000000
3.109199	-0.920213	0.092224	0.013333	95.000000
3.087535	-0.940487	0.095255	0.027027	45.000000
3.079170	-0.962154	0.089868	0.000000	-0.000000
3.055639	-0.981800	0.094210	0.008000	95.000000
3.021974	-0.999788	0.105144	0.018868	-50.000000
3.001668	-1.019283	0.107626	0.000000	-0.000000
2.986228	-1.039318	0.106981	-0.014925	-95.000000
2.964094	-1.058117	0.110789	0.027523	105.000000
2.925506	-1.073328	0.125768	0.000000	-60.000000
2.909891	-1.092670	0.125491	0.008547	95.000000
2.833297	-1.100532	0.165897	0.037037	140.000000
2.775037	-1.110807	0.194554	0.579832	2115.000000
2.753097	-1.126922	0.199372	0.530612	2300.000000
2.724349	-1.142044	0.208568	0.326316	5.000000
2.710224	-1.160007	0.207920	0.236364	1870.000000
2.744669	-1.188875	0.173966	0.376471	1480.000000
5.918346	2.509458	0.122380	-0.022727	-35.000000
5.873071	2.439236	0.120318	-0.206897	-1710.000000
5.826046	2.367197	0.118425	0.051724	-330.000000
5.834138	2.326877	0.099752	0.064000	700.000000
5.844314	2.285266	0.079479	0.642105	2015.000000
5.791782	2.214784	0.080858	0.058252	-90.000000
5.744338	2.145919	0.080140	0.088496	-550.000000
5.611834	2.037199	0.108531	0.077778	-235.000000
5.418073	1.901384	0.158461	0.040000	-75.000000
5.461761	1.880691	0.128398	0.102564	-140.000000
5.435703	1.828508	0.122639	0.057143	210.000000
5.360963	1.753320	0.133430	0.095652	-155.000000
5.342954	1.705249	0.124955	0.031579	-315.000000
5.300246	1.646562	0.125261	0.116279	50.000000
5.244866	1.583055	0.130258	0.230769	-300.000000
5.173244	1.513948	0.141556	0.034884	-195.000000
5.142929	1.463993	0.138560	0.073529	-245.000000
5.121187	1.417515	0.132409	0.059406	-150.000000
5.090499	1.366821	0.129250	0.070707	65.000000
5.050498	1.313961	0.130096	0.049020	-185.000000
5.015172	1.264566	0.129760	-0.040816	-590.000000
4.976179	1.213495	0.130680	0.007812	155.000000
4.920875	1.157053	0.137986	0.035714	-100.000000
4.886452	1.109022	0.137607	0.043478	-5.000000
4.849822	1.061129	0.138371	0.009434	-25.000000
4.802308	1.009750	0.143463	0.036765	-305.000000
4.766639	0.964382	0.144626	0.051020	-185.000000
4.723744	0.916195	0.148465	0.000000	120.000000
4.710719	0.878424	0.140653	0.109756	135.000000
4.711679	0.845682	0.127470	0.000000	-300.000000
4.701646	0.809736	0.118732	0.052632	-315.000000
4.694961	0.774727	0.108572	-0.017544	-10.000000
4.684467	0.738746	0.099994	0.008130	-85.000000
4.670217	0.701738	0.092980	-0.006897	-335.000000
4.643107	0.661621	0.091420	-0.005405	745.000000
4.615798	0.621614	0.090000	0.000000	-0.000000
4.579139	0.580606	0.093035	0.004878	1175.000000
4.545923	0.540132	0.094467	-0.081081	405.000000
4.492692	0.494944	0.104488	0.176829	595.000000
4.415905	0.444942	0.124975	0.488095	2275.000000
4.012355	0.316776	0.286198	0.396552	1585.000000
3.995893	0.285559	0.282373	0.157303	250.000000
3.995313	0.258799	0.271915	0.370370	2850.000000
4.070029	0.247999	0.228186	0.363636	2560.000000
3.975730	0.200077	0.258557	0.289655	2490.000000
3.935123	0.164598	0.265626	0.406250	1210.000000
3.915822	0.134634	0.263635	0.232323	685.000000
4.041900	0.132124	0.196035	0.465347	565.000000
4.090501	0.113712	0.162827	0.402299	445.000000
4.110204	0.089245	0.142408	0.128205	470.000000
4.059611	0.053425	0.154443	-0.010417	85.000000
3.827455	-0.012243	0.250226	0.216667	825.000000
3.805289	-0.040497	0.250284	0.076923	285.000000
3.813495	-0.064968	0.235828	0.428571	2805.000000
3.703004	-0.108402	0.276344	0.511364	1995.000000
3.653461	-0.139568	0.289629	0.150000	570.000000
3.693427	-0.158554	0.260526	0.224490	1105.000000
3.683019	-0.184343	0.255266	0.442623	1365.000000
3.650750	-0.214745	0.259612	0.250000	180.000000
3.654350	-0.238611	0.247680	0.440000	710.000000
3.671964	-0.262175	0.228394	0.372549	125.000000
3.732450	-0.280909	0.188404	0.613636	705.000000
3.708547	-0.308466	0.189395	0.416667	755.000000
3.748939	-0.329828	0.158899	-0.077922	90.000000
3.760313	-0.355354	0.141974	0.483516	1480.000000
3.727119	-0.382418	0.148048	-0.035714	-140.000000
3.713184	-0.409334	0.143905	-0.009259	85.000000
3.644111	-0.437551	0.168481	0.072727	160.000000
3.601455	-0.464939	0.179331	0.111111	455.000000
3.480758	-0.493257	0.231223	0.513158	1785.000000
3.441550	-0.518808	0.240979	0.069264	320.000000
3.441459	-0.541958	0.230998	0.459459	2080.000000
3.437557	-0.565588	0.222785	0.388430	1645.000000
3.426528	-0.588869	0.218506	0.272152	3005.000000
3.395713	-0.612989	0.224322	0.580952	1535.000000
3.255712	-0.634714	0.289189	0.616667	1415.000000
3.261923	-0.657440	0.275894	0.558824	2350.000000
3.269897	-0.679596	0.261916	0.421875	1365.000000
3.284454	-0.703144	0.243776	0.533333	300.000000
3.300621	-0.726686	0.224759	0.456140	670.000000
3.330562	-0.751156	0.197991	0.395604	2520.000000
3.424899	-0.779646	0.135237	0.544444	3335.000000
3.454339	-0.804890	0.108340	0.514706	2485.000000
3.443298	-0.828724	0.103561	0.007576	-25.000000
3.414737	-0.850948	0.108753	-0.008696	25.000000
3.396530	-0.873785	0.108175	0.009615	95.000000
3.390405	-0.897020	0.100950	-0.026087	195.000000
3.370239	-0.919279	0.101619	-0.036364	-140.000000
3.355039	-0.942055	0.099367	0.007576	-85.000000
3.344984	-0.965057	0.094283	0.000000	-60.000000
3.319253	-0.986221	0.098295	0.031746	140.000000
3.298629	-1.007740	0.099437	0.000000	-0.000000
3.271029	-1.028093	0.104757	-0.008850	85.000000
3.248523	-1.048853	0.107193	0.000000	-0.000000
3.220787	-1.068577	0.112819	0.000000	60.000000
3.159070	-1.082643	0.139044	-0.040650	-55.000000
3.127960	-1.100784	0.147140	-0.013158	-395.000000
3.091729	-1.117830	0.158445	-0.009804	-95.000000
3.089397	-1.139864	0.149463	0.015385	-50.000000
2.979223	-1.142025	0.206737	0.021277	-445.000000
2.907905	-1.150377	0.240539	0.400000	1680.000000
2.887021	-1.167953	0.243392	0.325581	430.000000
2.839618	-1.178940	0.263284	0.550388	2305.000000
